331
124.7118996999 61.6899159252 102.3662678299
103.9925660157 76.7323237671 111.7559383220
123.7284862954 52.2208769416 103.9772592351
117.0462262271 51.4695218885 106.1865378884
109.9280063732 71.0289417609 117.7569521714
104.2954890916 73.3735247950 109.3951036445
99.5307339840 57.9720690153 94.6408790159
103.2910997287 67.3494562885 112.9266235720
125.7126985834 65.1384768818 103.8317503340
115.9288312500 70.0748191093 112.6605501528
111.2806722359 57.1742267029 98.0618499730
110.4130990345 78.0292427131 107.8258751835
96.0702677536 57.6683900489 108.9581989959
120.5843601956 54.9827114739 102.7026390558
112.9341824759 79.7965144576 105.8626388540
101.8186252384 70.4017417053 113.5999329417
121.9614035235 72.7599307665 110.5172229365
124.3791189533 63.3719610277 111.3458677825
102.9545395301 55.2678711256 94.6180133314
115.8171484441 74.8526133262 114.5943067569
100.0025985633 70.7377349861 100.2182162986
107.6499416940 52.6330261797 97.2708106742
109.5026290532 67.0346279388 91.0086366932
112.1722449573 53.1630943195 104.4918316218
100.5663038257 59.8640626751 98.1631392860
115.1461067456 73.2123311681 100.1482964370
117.0118332141 62.6999744662 92.5627473462
115.7710391300 57.3170899876 111.3974573020
105.0559148294 52.0511795478 109.2299415931
118.8605521488 50.4605971832 108.8459492722
116.0864343975 66.5208114425 114.4504986092
94.9719590091 57.2791064953 105.5160631077
118.2358087369 74.3979452534 107.8226626493
98.9570131738 63.7576541020 94.6032734687
115.9864678927 49.5370880926 104.2382303942
108.8376344778 63.3517409596 90.7518229313
115.6999854328 67.9462317557 94.0756619727
100.7452608768 65.2127431132 107.0268990355
108.6452603722 66.9386298586 94.8676461345
120.2759569142 65.1762714016 110.1254827391
122.1297781090 68.0715205888 114.1456858072
97.6085047084 60.2862274609 95.5802618048
98.1368720948 53.1271895257 105.6553359130
121.9759544136 52.5141624150 97.6810701863
101.7795079104 69.3969743972 104.6139079207
126.2212238470 59.5877847355 109.3807417269
105.8282458410 64.8172234638 90.8901508737
103.6949341724 68.0325922334 117.4676351226
97.6850386109 60.5710091674 98.6499327007
107.0943622533 56.4829649363 116.3732948026
113.3380169197 50.2139879417 101.1655359367
118.5158661284 59.4840387788 94.6743271659
106.5007993203 77.9083002498 111.1323287458
97.4049812194 57.0323082811 97.3129515637
102.5930349485 62.7999409710 92.5361022098
103.6663993100 52.0506126300 106.0359267271
115.2328451684 61.4807232583 114.1989760801
116.7026740424 78.2374905170 104.8858394905
114.6818010702 75.1961655110 107.6471071050
108.2304655177 79.5534956955 106.0997994655
116.5265515802 70.9858560084 102.8084637112
119.8405640464 55.5212833807 92.4839457725
101.3125566186 64.0654904655 115.3411264676
106.9212633528 51.0671992255 105.4499226981
102.5408785112 64.4606321697 110.8269490260
120.2022576007 58.0676891503 110.4297286232
117.3601097138 75.1218992796 100.4402591023
108.1144363420 56.9257277354 93.6266630778
118.0810401785 50.3942678010 100.6044762907
111.9723119477 66.8887410925 117.0724934183
106.8186512316 57.7638212113 97.2985896462
102.6773167276 54.2323012838 113.6382943793
117.3929909460 57.5457468322 90.9332366262
112.9816145982 69.9793879468 98.0455983295
100.4865573890 60.4717985530 111.2389092915
122.1634152316 68.2361157224 104.5868848391
99.8550109636 56.5978602764 105.1942427718
105.8577255664 72.7043728224 116.7684365068
124.3847881312 57.8048282653 101.5765513392
124.3477495019 61.5572571608 94.2608551196
106.1319248073 68.4334031156 93.7219052676
105.9576920712 60.6789125213 116.1421813142
125.1340644857 66.0377974798 106.4720754853
110.9896544336 51.8143968814 110.0997824656
109.6252722699 65.5426892708 119.6126630922
107.1383928689 72.8946682295 94.6113992904
112.3300370774 77.3857910140 103.6119752015
116.5860779489 54.4656824434 111.7464896921
121.7892494859 65.5211463945 93.4046202741
101.8670022237 51.3251468230 102.7430791920
101.8845766754 74.0912427254 106.3224091870
109.2363666614 60.5636392360 95.7595968011
115.3615355083 70.0425047949 100.3650480079
119.6436545984 75.6066139957 105.3267125636
121.8586024297 61.5064235318 92.0426947541
97.0085167070 67.1385628682 107.0835908152
121.5908282571 62.8505856274 112.0365626313
108.5430261962 74.0275589596 100.1050217119
97.1627183477 63.2319323319 107.3483414262
112.5518909084 70.3905923220 115.5068554368
117.8161005949 71.9377109888 96.6589173991
102.9307289827 68.2221317500 99.8924275382
97.8968768942 68.8576466000 101.2577545650
110.1766943133 74.9920751042 113.4421408216
99.5076793269 64.9466696940 103.8956230724
103.6274709547 57.9715020975 111.3169549749
104.5791369625 74.2346729280 98.8366376284
107.5048107381 59.9950206861 91.8605251688
110.4165005413 50.9267925846 100.0836678082
97.9972213442 54.6280099058 108.7883126295
94.3799078568 62.1253087930 102.3968813909
122.0054341390 53.4560018477 111.2774597017
126.5024150741 56.2405130919 105.4652294786
98.0741331920 59.7497342528 104.3618184738
119.6982676795 70.8033084779 112.4267910480
116.4316873356 68.4832918817 97.9838042897
100.5058325941 63.4101334927 98.3377499674
107.5184167652 66.1084732318 114.9493862702
115.7521418701 73.7769812935 104.3166540227
98.9545565300 63.5367451339 101.4072318906
111.5792489421 60.0947982183 116.9791409545
109.5500611755 56.4999724702 111.8368185943
111.8627078404 49.2126221403 108.5932929075
124.3596547756 66.8620959560 98.3834813363
98.0376614804 65.6330181731 111.7729458559
105.3762233845 53.9556453991 98.4059690756
112.0530032474 64.6116212762 90.5919521127
96.5177548677 60.5547575239 101.3563982616
103.2251482917 62.6357237825 96.4213788423
111.5766033257 58.1300501079 94.1805417650
121.2244103879 50.7854410806 107.2984526601
103.4335850682 61.4397162044 111.0966129246
121.8693738678 60.2113943118 114.3051786806
117.4177463565 72.1869658467 115.4955170809
113.8342589643 53.8609701271 102.2347429011
112.9215213118 74.3040258718 97.6850386109
115.0108023648 52.9036349413 97.5342384770
110.3290062280 54.4972408674 115.2050661964
121.9761433862 59.0172764596 94.6714925769
108.7174479049 51.3170210012 108.1384358620
125.9048837165 64.7197136028 100.6949941655
99.2502986473 68.4751660599 110.1143333557
126.2274599427 62.1341905052 98.0045912756
97.5544585451 54.2506316259 100.6692938921
96.8820940383 60.8501216959 110.9002703944
111.9891305090 77.3769093018 110.2732593114
103.4063730140 55.9755735083 99.3905163156
113.1225881570 57.9176449068 91.2828359341
124.0773297129 67.7941088136 101.5132455186
99.1709301557 69.9383808929 107.3464517002
119.0610520761 55.0218288019 98.6920735902
119.2373635109 68.5426292777 102.8844306959
110.3794619119 67.7122836783 114.6547779885
101.3197375774 60.9740877208 95.0721144865
123.0997744590 57.9439120980 105.2656744142
102.8961469971 76.2186962434 103.6698008168
115.9129575517 51.7794369506 102.0606991375
119.5657978877 69.5001534361 95.6819290630
118.9881086530 64.2941473101 95.9461127562
103.2988476052 55.8106004295 109.0831098837
100.9682485435 53.7113038288 105.7930969376
111.6998134602 61.6371925702 92.9008193256
116.8595212994 66.4199000747 91.7248428429
114.2596362843 53.7946407449 109.1961154979
121.4275559317 70.9310539547 107.7432941578
121.0526342955 55.1953056476 106.8171394508
102.2704587222 65.0851866090 95.0668232537
126.8227236291 62.1494972857 106.5714750723
122.0681730418 56.9521838992 113.5203754776
121.5235540119 70.0315443841 100.0105354125
97.2781806056 68.2026675724 104.0462342337
121.3343924404 64.8869543528 99.5137264501
95.9510260438 66.1309609711 101.0523413500
106.2129940523 77.7803658004 102.7867318623
100.8656364223 73.8298936212 113.0989665821
105.4820480399 68.9629043376 96.8919206135
98.2304135312 66.9533697213 97.1115067734
101.8373335257 57.3854980684 114.7152492202
98.9065574899 73.7267145822 108.4404140750
98.5594148258 70.4276309513 112.5411194703
113.4627388349 50.6563727956 111.8919985932
120.6886730701 67.7608496362 107.5605576547
125.0443025013 55.2359347564 99.2021106346
103.4284828081 72.2362876950 95.7879426909
119.6965669261 51.9251348244 104.2435216269
121.5256327105 56.8801853391 99.2776996741
122.8902038469 59.4657084367 110.9839852557
110.0997824656 54.2644266256 95.4190681780
106.7315348635 58.8462562576 113.0326371999
106.6890160288 71.1593328541 100.1307219853
107.4662603279 61.4255432594 119.1757584437
106.1451528893 76.2421288457 108.7869898213
101.0459162816 67.1372400600 97.5737337502
100.9801538172 57.7067514865 108.3117237352
112.9247338460 55.5163700931 94.9173459280
110.4714915676 71.0814761434 100.2603571882
105.6182972836 54.7629363414 101.3042418243
124.2307754632 56.9933799258 95.1431681836
104.5392637442 71.8109103750 112.1295371500
121.3134164820 56.2418359001 95.5273494771
117.8947131960 54.2290887497 101.3218162760
112.2801483113 70.5005743745 92.9514639821
118.5697233191 70.9350223793 109.7171129529
102.2744271468 55.0889140745 103.5377089702
122.9763753519 52.4608721421 101.1396466907
94.7780731226 64.2533292288 104.3735347750
107.2273989629 69.8049662381 117.9527277838
95.0826969520 57.8237255252 101.2209049082
126.8646755461 58.1389318201 103.1134654858
112.8398851491 63.5114228057 115.4571556433
121.8398941424 62.1661268744 97.4841607383
121.0603821721 74.1619184774 107.3664827957
102.0142118782 76.6170504818 108.6728503716
121.2077807992 64.3863659384 107.3456958098
99.3903273430 73.6611410904 104.6749460701
108.4647915403 69.8852795926 114.0202080016
114.3922950487 74.0298266308 110.6194571125
104.5734677845 63.7493393076 113.0657074047
99.6169054890 53.6523443779 98.6161066055
110.0049182210 75.3651070144 109.9729818518
109.0812201578 58.3534157198 118.2556508598
124.2188701894 59.6930424731 97.7984221702
105.2309034560 61.9531547555 93.5869788320
113.9716420437 79.4837648065 108.5110898270
105.5124726283 75.0961990062 103.6338960230
112.4237674864 67.7039688840 91.2471201129
123.8424367725 69.7242749384 109.9178018529
117.9049177163 61.2668062764 115.3583229741
103.2971468518 72.6586414535 102.0508725624
112.2402750929 72.4953691281 94.9687464749
112.7113837819 59.5212663807 113.8784785524
117.1357992390 52.6853715896 94.1816756006
103.0214358301 59.7455768556 113.5717760245
118.0644105898 63.3910472602 117.7769832669
108.5010742793 77.6091566258 100.8212278616
107.6293436807 76.3532447338 114.0169954674
111.3381199059 65.3994480409 94.6637447003
121.7465416785 68.0059470969 111.3012702492
107.7317668293 73.4944672582 102.7767163146
114.4168614866 77.7830114168 101.2551089486
115.9819325503 57.1294401970 116.0435376176
105.4474660543 64.8372545593 118.5865418804
123.7526747880 55.0250413361 104.9517909275
115.2405930450 77.5156151894 112.2848726262
117.0893119796 56.2000729558 93.6017186947
114.9193396269 61.1623044292 118.3057285985
122.7977962460 60.0675861640 107.7839232666
106.2808352152 53.5387718460 103.8377974572
114.4820570332 64.5666457977 92.6283208380
108.6581105089 61.0627158696 115.2723404416
122.0608031105 72.1520059159 103.7351853360
114.5691734012 62.5280094012 94.6720594947
106.5185627446 50.6044053309 101.1107338830
105.8305135122 54.2980637482 112.6545030296
108.0137139468 52.9726099398 100.3875357472
109.9529507563 55.5477395445 100.3408595153
106.6725754127 50.3322847886 110.8698458060
111.1606746356 74.3312379260 102.2258611889
99.4594913142 63.1487843884 112.6915416590
119.4501466572 73.5248918467 101.5882676404
119.7211333640 68.3453418845 98.4220317465
110.5977252636 61.5092581207 119.5597507645
112.9636622013 63.3080882893 119.4104624114
103.0414669256 51.9818266040 98.7892055060
118.4045612677 70.8779526544 105.2480999625
112.4732783073 55.6167145431 111.6897979124
104.3846841583 58.4686890051 94.7406565481
118.7403655759 75.7789570059 110.5998039622
118.6787605087 60.9058686126 112.2021026279
115.6946942001 59.2958220703 92.4170494725
112.3402415977 49.3207144669 104.0946112190
109.4890230261 69.6804332954 96.7346954112
116.3054536396 66.5567162363 118.4145768154
112.3069824203 51.7085722261 97.2859284821
125.3793509190 54.5138704561 102.6769387824
122.8629917926 67.1829714289 95.9931669333
117.7979592254 51.6592503778 111.3451118921
118.9121416682 67.8617610040 114.5995979897
125.7654219385 55.9122676877 108.3572661315
102.0699587949 51.9464887280 110.3499821865
119.0782485826 54.4197621019 95.7216133087
117.8132660059 57.9975803161 113.5113047928
124.6334760713 53.4801903404 107.2634927293
112.5095610463 77.2569117015 113.8331251287
118.5646210589 64.2162905994 112.9670637081
112.3697213231 76.0675181643 106.1872937788
106.8789334906 74.6005238794 106.0954530958
110.5886545789 71.6911017473 113.2115942510
109.1231720747 53.1373940460 105.4620169444
103.4067509592 66.7604286979 92.0604581784
115.2935053727 53.9730308782 114.5801338120
121.7850920887 64.3015172415 115.0667382540
118.3282163378 54.8345569564 114.0508215626
101.5591658601 69.7004643909 94.9950136661
113.4731323279 68.0581035342 95.8682560455
102.4741711838 61.5411944899 116.1582439851
112.3648080355 57.2479260164 117.2724264279
95.1246488689 60.8204529979 108.3179598310
114.7309339459 49.4454363821 107.9963284677
104.0779816303 69.9476405502 115.2740411950
122.9967843926 56.6280958922 109.7928909651
115.2715845512 61.5134155179 90.4791354712
118.9236689968 70.7110898496 101.0585774458
100.1550994506 68.1777231893 115.2009087992
118.7339405075 55.4848116691 109.5746276134
104.8102504509 63.3294421930 115.9864678927
95.5787500240 63.8666912915 99.2890380300
122.7543325483 62.7840672726 105.4130730413
97.2783695782 56.6923465758 103.6488248583
104.4706666908 49.6994155550 107.4201510138
100.9570991602 56.8321862990 96.8932434217
108.7352113292 74.4306375130 115.8745961142
117.1049967053 50.7644651222 97.6876842273
113.4353378081 71.8303745527 112.7334935759
105.0789694865 78.0464392196 106.4431626777
99.8072008961 57.6385323783 101.0886240890
120.6726103992 65.7787160468 102.1789959844
112.1370960539 73.3298721246 116.5949596610
99.5777881611 57.4569297108 112.3995789937
105.8193641288 74.5829494277 112.5834493324
109.4816530947 49.8647665790 102.8774387098
116.5966604144 77.9957945631 109.8401341148
108.3128575708 73.2372755512 111.7196555830
101.8044522935 69.5536326816 110.7965244376
114.9132925038 54.1750425864 92.7866798759
124.6601212078 64.7714920949 96.1373530262
107.9186607296 74.5716110717 97.3683205352
109.7509390481 52.0698878351 113.2894509618
126.3183557628 58.2802833240 99.2502986473
119.1963564569 58.7589509169 115.8687379636
107.2493197844 64.1497722446 94.4927244984
